1215
-0.955300 0.012642 0.380348 66 128 158
-0.741194 0.071253 0.444618 80 132 163
-0.716375 0.076568 0.449640 81 132 163
0.463021 0.003326 0.471416 157 127 165
0.523261 0.013408 0.472045 160 128 165
0.550228 0.013322 0.471720 162 128 165
-0.679908 0.022613 0.482755 84 129 166
-0.732638 0.002402 0.477109 80 127 166
-0.832052 -0.014507 0.438628 74 126 162
-1.020257 -0.072547 0.393909 62 122 159
-0.108628 -0.383152 0.837548 120 102 195
0.553195 -1.640448 0.538556 162 21 170
-0.408983 -0.276931 0.637146 101 109 178
-1.140497 -0.334083 0.472403 54 106 165
0.018147 0.227383 0.299650 128 142 151
0.882498 0.377887 0.192871 183 152 143
0.151307 0.015347 0.493413 137 128 167
-0.371489 0.399288 0.179472 103 153 141
-0.787089 -0.231402 0.565784 77 112 173
0.183651 0.131784 0.385516 139 136 158
0.458076 -1.807117 0.755761 156 10 188
0.144875 0.101451 0.422229 136 134 161
0.114978 0.107232 0.428622 134 134 162
-0.480223 -0.057907 0.516663 96 123 169
-0.779572 0.165568 0.386105 77 138 158
-0.433951 -0.282203 0.634439 99 109 178
1.209446 1.084432 0.038578 204 197 130
1.194798 1.072826 0.019123 203 196 128
1.172933 1.072443 0.002194 202 196 127
1.149465 1.047177 0.009293 200 195 128
1.122624 1.054186 0.000170 199 195 127
1.092802 1.056810 0.002528 197 195 127
1.058890 1.067852 0.012499 195 196 128
-1.599393 -1.082754 -0.037790 25 57 124
-1.030599 -0.044894 0.371931 61 124 157
-1.372888 -0.255993 0.249156 39 111 147
-0.020565 -0.371803 0.798951 126 103 192
-1.310211 -0.279378 0.328811 43 109 154
-1.223849 -0.232414 0.377461 49 112 157
-1.201210 -0.221081 0.388690 50 113 158
-1.179586 -0.210590 0.400097 52 114 159
-1.135305 -0.191956 0.420958 55 115 161
-1.110877 -0.185140 0.427079 56 115 161
-0.613708 -0.221912 0.543006 88 113 171
-0.890097 -0.213641 0.545031 70 113 171
-0.915661 -0.141780 0.473646 69 118 165
-0.805035 -0.125169 0.491019 76 119 167
-0.718269 0.386198 0.167538 81 152 140
-0.147883 -0.570091 0.954551 118 90 204
-0.510507 -0.103580 0.526699 94 120 170
-0.335653 -0.043915 0.559231 106 124 172
-0.314550 -0.049339 0.568256 107 124 173
-0.774804 -0.281407 0.579353 78 109 174
-0.149082 -0.537071 0.941417 117 92 203
-1.648596 -0.964149 -0.182760 22 65 112
-0.400101 0.301519 0.279016 101 147 149
-0.430088 0.253549 0.331282 100 144 154
-0.518973 0.214198 0.392939 94 141 159
-0.745661 0.131261 0.405636 79 136 160
-0.039364 0.081561 0.453887 124 132 164
-0.277007 -0.220027 0.592030 109 113 175
0.540244 -0.296934 0.563816 161 108 173
-1.194596 0.024958 0.241470 51 129 146
-0.459493 -0.284171 0.630969 98 109 178
-0.484272 -0.289569 0.625477 96 108 178
-0.309048 -0.019170 0.557855 107 126 172
-0.951014 -0.518547 0.640757 66 94 179
-0.509618 -0.294115 0.622302 95 108 177
-0.491117 0.137377 0.463417 96 136 164
0.482322 -1.759766 0.735395 158 14 186
0.455051 -1.752270 0.741690 156 14 187
0.426298 -1.748993 0.746666 154 14 187
0.398468 -1.747104 0.749351 152 14 188
-0.534784 -0.298106 0.617381 93 108 177
-0.550923 -0.138334 0.536373 92 118 170
0.520843 -1.579694 0.338994 160 25 154
0.550610 -1.587609 0.332605 162 25 154
0.577465 -1.599199 0.333198 164 24 154
0.610759 -1.593682 0.314818 166 24 152
0.645074 -1.614106 0.309705 168 23 152
0.510343 0.070687 0.440273 160 132 163
0.340661 0.091955 0.422453 149 133 161
0.368940 0.103754 0.416603 151 134 161
-0.621758 0.138211 0.448749 87 136 163
-0.738113 0.106565 0.419678 80 134 161
0.125247 0.077409 0.448541 135 132 163
-0.444250 0.162231 0.439034 99 138 162
0.243787 -0.044958 0.525014 143 124 169
-1.189700 -0.114949 0.348627 51 120 155
-1.832653 -1.146642 -0.020093 10 53 125
-0.144556 0.116282 0.429417 118 135 162
-0.282734 -0.005047 0.553776 109 127 172
-1.229884 -0.379338 0.427079 49 103 161
-0.558999 -0.306360 0.609479 91 107 176
0.376973 0.220766 0.288661 151 141 150
1.077875 0.190482 0.303983 196 139 151
-1.191892 -0.031908 0.282793 51 125 150
0.164578 0.043647 0.464331 137 130 164
-0.714686 0.055798 0.462047 81 131 164
-0.234069 0.094865 0.468164 112 133 165
-0.585465 -0.306846 0.608776 90 107 176
-0.611388 -0.308191 0.606536 88 107 176
-0.694208 0.120104 0.428327 83 135 162
-0.992577 -0.099158 0.416313 64 121 161
0.996539 0.257976 0.272353 191 144 149
-0.122550 0.107911 0.429138 119 134 162
-0.637406 -0.310758 0.603653 86 107 176
1.191181 1.052307 0.052443 203 195 131
1.167735 1.041980 0.030631 201 194 129
1.146733 1.020991 0.025623 200 193 129
1.126266 1.021825 0.015338 199 193 128
1.099927 1.019775 0.013357 197 193 128
1.068107 1.023564 0.016616 195 193 128
1.032326 1.026419 0.026324 193 193 129
-1.007569 -0.038247 0.380302 63 125 158
-1.282621 -0.538894 0.464729 45 92 165
-0.081068 -0.460229 0.912866 122 97 201
-0.980934 0.324313 0.061813 64 148 132
-0.208138 -0.170718 0.595740 114 116 175
-0.249705 -0.186639 0.589381 111 115 175
-0.354311 -0.180293 0.577073 104 116 174
-1.649664 -1.158297 0.021589 22 52 129
-0.541089 -0.210528 0.555031 93 114 172
-0.644054 -0.216663 0.537470 86 113 170
-0.916777 -0.228292 0.545648 69 112 171
-0.963273 -0.231272 0.531589 66 112 170
-1.009076 -0.247138 0.514076 63 111 168
-1.099963 -0.282505 0.476795 57 109 165
-1.251641 -0.362717 0.392946 47 104 159
-1.356446 -0.423952 0.327534 41 100 153
-1.460972 -0.492318 0.260347 34 95 148
-0.012415 0.055576 0.477423 126 131 166
-1.641732 -0.935431 -0.207440 22 67 110
-0.748449 -0.282017 0.577280 79 109 174
0.365610 -1.631127 0.657052 150 22 180
-1.209916 -0.547622 0.505690 50 92 168
-0.401649 0.250991 0.327948 101 143 153
1.181773 -1.164443 -0.805063 202 52 62
1.156520 -1.083512 -0.912988 201 57 53
-0.052460 0.364281 0.135677 124 151 138
-0.662786 -0.313291 0.600863 85 107 176
0.215520 -0.041106 0.529006 141 125 170
-0.167850 0.110193 0.432532 116 134 162
-0.797862 -0.409690 0.651735 76 101 180
-0.411279 0.187356 0.404109 101 139 160
-0.684295 -0.319977 0.603893 83 107 176
-1.002991 -0.003071 0.366041 63 127 157
-1.025704 -0.012526 0.356153 62 126 156
-1.048125 -0.028364 0.355071 60 125 156
-1.073518 -0.023626 0.343183 59 126 155
0.044159 0.026409 0.498207 130 129 167
0.072052 0.026612 0.498728 132 129 167
-1.036473 -0.129608 0.425488 61 119 161
-0.987414 -0.131374 0.440820 64 119 163
-1.015483 0.124654 0.297319 62 135 151
-1.039753 0.116996 0.289827 61 135 150
0.589321 0.126567 0.395595 165 135 159
-1.260167 -0.007578 0.206299 47 127 144
-1.281276 -0.019903 0.193015 45 126 143
0.561659 0.126869 0.395865 163 135 159
-0.023259 -0.387130 0.833542 126 102 194
-1.892889 -1.175746 -0.053575 6 51 123
-0.746809 -0.370997 0.648740 79 103 179
-0.396889 -0.260857 0.607039 102 110 176
-0.966242 0.171568 0.289429 65 138 150
-0.939133 0.178141 0.303508 67 139 151
-1.260647 0.068344 0.133072 47 132 138
-1.241216 0.082682 0.147994 48 133 139
-0.375288 0.149673 0.425117 103 137 161
-0.344833 0.147018 0.422197 105 137 161
-0.676533 -0.399800 0.721354 84 101 185
0.191248 -0.098150 0.564251 139 121 173
0.954441 -1.892984 0.288402 188 5 150
0.527276 -1.638128 0.556751 161 21 172
-0.705939 -0.318521 0.594581 82 107 175
-0.339512 -0.010622 0.547923 105 126 171
-0.414310 -0.068389 0.541193 101 123 171
-1.213288 -0.335352 0.423561 50 106 161
-1.143020 -1.212224 0.544294 54 49 171
-0.732696 -0.319078 0.593896 80 107 175
-0.134150 -1.889070 0.653278 118 5 180
-0.966767 -0.096527 0.418361 65 121 161
-1.094269 -0.087732 0.377360 57 122 157
-1.076272 0.033517 0.301667 58 129 151
-0.513141 0.311308 0.290551 94 147 150
-0.716705 0.094014 0.433870 81 133 162
-0.901667 -0.082344 0.434506 70 122 162
0.372515 0.152008 0.371751 151 137 157
-0.184199 -0.343473 0.776331 115 105 190
-0.767734 -0.320316 0.593816 78 106 175
1.185351 1.035903 0.086155 203 194 134
1.171864 1.015860 0.062155 202 193 132
1.150839 1.002242 0.046601 200 192 131
1.132717 0.999547 0.032171 199 192 130
1.107088 0.984834 0.033817 198 191 130
1.077586 0.985022 0.024404 196 191 129
1.054520 0.995885 0.029844 194 191 129
-0.978017 -0.035759 0.389305 65 125 158
-0.401589 -0.365201 0.802017 101 104 192
-0.601105 -0.284617 0.579968 89 109 174
-0.097706 -0.173549 0.594801 121 116 175
-0.229559 -0.177020 0.596240 112 116 175
-0.284007 -0.178030 0.583185 109 116 174
-0.414525 -0.194773 0.572073 101 115 173
-0.511675 -0.214554 0.562002 94 113 172
-0.592403 -0.227745 0.547958 89 112 171
-0.195642 0.113519 0.436033 115 134 162
-0.940246 -0.215279 0.531949 67 113 170
-0.986759 -0.238564 0.523867 64 112 169
-0.537773 0.380491 0.211739 93 152 144
-0.591523 0.379418 0.211086 89 152 144
-0.698407 -0.398903 0.714458 82 101 185
1.178672 0.164170 0.274840 202 138 149
-0.268289 0.386187 0.215386 110 152 144
-0.322671 0.387248 0.217094 106 152 144
0.141176 0.328426 0.147926 136 148 139
0.953533 0.055780 0.427240 188 131 161
-0.797132 -0.331176 0.593178 76 106 175
0.506436 -1.707717 0.689074 159 17 183
0.893617 0.062238 0.429137 184 131 162
0.682212 0.025945 0.443362 171 129 163
-0.342870 0.280928 0.301090 105 145 151
0.481829 -1.729668 0.717883 158 15 185
-0.818878 -0.325462 0.590018 75 106 175
-0.845974 -0.326931 0.585741 73 106 174
-0.023100 0.358720 0.129738 126 150 137
0.524800 0.361590 0.179836 160 151 141
1.035923 0.086966 0.397222 193 133 159
1.013482 0.090340 0.401603 192 133 159
-0.693958 -0.355767 0.656855 83 104 180
-0.052333 -0.387403 0.833626 124 102 194
-0.442942 -0.313727 0.701571 99 107 184
-0.875504 -0.557798 0.702668 71 91 184
0.255214 0.177442 0.347906 143 139 155
0.200959 0.177556 0.347921 140 139 155
-0.968415 0.139310 0.313436 65 136 152
-0.992688 0.133143 0.306819 64 136 152
0.303207 -1.709619 0.731764 146 17 186
-0.576820 0.188383 0.424024 90 139 161
-0.585325 -0.254445 0.560046 90 111 172
-0.410800 -0.228491 0.583914 101 112 174
-0.253477 -0.226955 0.599762 111 113 175
-0.088235 -0.216507 0.600286 121 113 175
-0.539682 0.235350 0.374301 93 142 157
-1.059650 0.181291 0.204066 59 139 143
-0.645376 0.351734 0.233323 86 150 146
0.440360 -1.690163 0.703313 155 18 184
-1.171099 0.040803 0.251803 52 130 147
0.219278 -0.073151 0.548159 141 122 171
0.325232 0.030500 0.448611 148 129 163
-0.257257 0.120176 0.436606 111 135 162
-1.216920 0.090733 0.157758 49 133 140
-1.194711 0.100553 0.168291 51 134 141
-0.749985 0.164934 0.390290 79 138 158
0.998578 -1.720712 0.195216 191 16 143
0.291343 -0.056366 0.511802 146 124 168
-0.941395 -0.170174 0.494738 67 116 167
-0.865941 -0.158075 0.507755 72 117 168
1.109006 -1.935589 0.237426 198 2 146
-0.256550 0.148083 0.412331 111 137 160
-0.153628 0.170364 0.394701 117 138 159
0.442188 0.294712 0.210963 155 146 144
-1.077295 -1.177432 0.591378 58 51 175
-0.823404 0.237223 0.308649 75 142 152
-0.891186 0.190957 0.317492 70 139 153
-0.762358 0.197058 0.375653 78 140 157
-1.217891 0.016648 0.232161 49 128 146
0.180718 -0.441601 0.830670 139 99 194
0.779237 0.128043 0.396445 177 135 159
-1.452407 -0.166100 0.022895 34 116 129
-1.253307 0.023316 0.187976 47 129 142
-0.268773 -0.359014 0.809045 110 104 192
-0.484626 -0.381885 0.784865 96 103 190
0.032789 0.357687 0.126989 129 150 137
1.170915 0.999427 0.088334 202 192 134
1.153697 0.985897 0.070452 201 191 133
1.132233 0.971052 0.056000 199 190 131
1.111936 0.951725 0.050886 198 189 131
1.087621 0.944843 0.041435 196 188 130
1.052731 0.954925 0.033311 194 189 130
-0.950121 -0.023087 0.393247 66 126 159
-1.304602 -0.551056 0.452793 44 92 164
-1.779292 -1.225241 0.057864 14 48 132
-0.125239 -0.171020 0.596156 119 116 175
0.125884 0.128246 0.399370 135 135 159
1.141214 1.611560 1.563426 200 231 253
-0.385904 -0.195143 0.577231 102 115 174
1.030134 0.144301 0.360205 193 136 156
-0.571066 -0.217938 0.550913 91 113 171
-0.678074 -0.221667 0.539252 84 113 171
-0.787894 -0.433283 0.685331 77 99 182
-1.270886 -0.403324 0.400808 46 101 159
-0.094522 0.270930 0.293249 121 145 151
-1.628323 -0.936295 -0.166141 23 67 113
0.156843 0.251941 0.272169 137 143 149
0.060757 0.351783 0.122137 131 150 137
-0.312436 0.139692 0.421371 107 136 161
0.155254 0.125268 0.395802 137 135 159
-0.717059 0.132026 0.413676 81 136 160
1.123619 -1.780984 0.190639 199 12 142
-0.040194 -0.182193 0.586216 124 115 174
-0.532134 -0.127374 0.534794 93 119 170
0.088798 0.351303 0.120795 133 150 137
0.292901 0.200232 0.319248 146 140 153
-0.979863 0.312237 0.089445 65 147 134
-0.644542 -0.345518 0.667578 86 105 181
-0.457658 -0.065590 0.526474 98 123 169
0.058322 -0.338656 0.678095 131 105 182
-1.675227 -1.105700 -0.021270 20 56 125
-0.290349 0.171304 0.396033 108 138 159
1.066475 0.218060 0.280995 195 141 150
0.907225 0.246841 0.313789 185 143 152
-1.295947 -0.197914 0.311219 44 114 152
-1.275030 -0.186283 0.323874 46 115 153
0.684154 0.258349 0.327618 171 144 153
-1.215053 -0.509561 0.494569 50 94 167
-1.317366 -0.210253 0.297681 43 114 151
1.024992 0.334421 0.196284 192 149 143
0.043677 0.202993 0.325951 130 140 153
-0.694825 0.167759 0.400954 83 138 159
0.619700 0.094476 0.412993 167 133 160
0.862639 0.095544 0.411667 182 133 160
0.890009 0.096268 0.413070 184 133 160
0.947033 0.091788 0.407443 187 133 160
0.917527 0.092115 0.406847 186 133 160
0.412628 0.315803 0.164858 153 148 140
-0.697317 0.346459 0.228336 83 150 145
0.912137 0.373722 0.188532 185 151 142
-0.092848 -0.561359 0.964513 121 91 205
-0.396051 0.330852 0.251754 102 149 147
-0.284721 -0.308973 0.709895 109 107 184
-0.257200 -0.308224 0.710295 111 107 184
-1.031522 0.145963 0.269397 61 137 149
-0.966334 -0.352813 0.562837 65 104 172
-0.986669 -0.358127 0.559119 64 104 172
-0.474839 -0.356944 0.759091 97 104 188
-1.833445 -1.080197 -0.063172 10 57 122
-0.696672 -0.160511 0.518722 83 117 169
-1.160329 -0.559420 0.539579 53 91 171
-1.008575 -0.363653 0.544787 63 104 171
-1.039434 -0.362972 0.539864 61 104 171
-0.957307 0.321271 0.098338 66 148 135
-1.059475 -0.382153 0.535483 59 102 170
-1.144529 0.202608 0.079305 54 140 133
-0.672312 0.147277 0.424301 84 137 161
-1.087617 -0.375968 0.527210 58 103 170
0.406453 0.240926 0.258381 153 143 148
-0.000864 0.294220 0.214207 127 146 144
-1.483297 -0.452942 0.199574 32 98 143
-0.554818 0.165578 0.443358 92 138 163
-1.148771 0.117899 0.187085 54 135 142
-1.127107 0.126527 0.195728 55 135 143
1.028588 -1.721188 0.183663 193 16 142
1.051483 -1.733246 0.182542 194 15 142
1.081124 -1.747995 0.182487 196 14 142
-0.839750 -0.154870 0.511017 73 117 168
-0.782027 -0.150912 0.507848 77 117 168
-0.338214 0.085922 0.470144 105 133 165
-0.818901 -0.410476 0.640480 75 101 179
0.507391 -1.607270 0.451056 159 23 163
-1.111016 -0.391655 0.514887 56 102 169
0.335912 -1.847239 0.761393 148 8 188
0.766481 0.231272 0.350665 176 142 155
0.793935 0.228609 0.346922 178 142 155
-1.133869 -0.400958 0.505570 55 101 168
-0.730397 0.256705 0.336530 80 144 154
-0.874773 0.219666 0.296803 71 141 151
-1.158038 -0.409589 0.497989 53 101 167
-1.143214 0.184623 0.105472 54 139 135
0.599081 -1.876370 0.719187 165 6 185
-1.119378 -0.002261 0.307212 56 127 152
-0.339650 0.113877 0.445453 105 135 163
-1.431669 -0.158257 0.047310 36 117 131
-0.280132 0.144405 0.419067 109 136 161
1.120091 -1.805221 0.198711 198 11 143
-0.417133 -0.311300 0.704236 100 107 184
-0.403563 0.224906 0.352430 101 142 155
-1.058629 0.103716 0.274893 60 134 149
-1.179596 -0.420043 0.486262 52 100 166
1.149897 0.960752 0.093846 200 189 134
1.126746 0.941842 0.074049 199 188 133
1.108398 0.927717 0.062569 198 187 132
1.093885 0.907424 0.054923 197 186 131
1.065983 0.905236 0.043559 195 186 130
-0.927790 -0.014706 0.403755 68 126 160
-1.324375 -0.562248 0.438508 43 91 162
-0.575086 -0.282472 0.581766 90 109 174
-1.329444 -0.294611 0.311824 42 108 152
0.057723 -0.099932 0.564520 131 121 173
-1.202386 -0.429633 0.476558 50 99 165
-1.224464 -0.439430 0.465640 49 99 165
0.422029 -1.660817 0.681022 154 20 182
-0.088216 0.020553 0.492151 121 128 167
-1.090011 -0.147504 0.416400 58 118 161
-0.589894 0.402359 0.184567 89 153 142
-0.008427 0.022512 0.493560 126 129 167
-1.270021 -0.220221 0.337779 46 113 154
0.541678 -1.601272 0.381514 162 24 158
0.570451 -1.600581 0.367084 163 24 157
-1.246950 -0.448953 0.455491 47 98 164
0.967036 0.263789 0.278644 189 144 149
1.024818 -1.756700 0.209584 192 14 144
1.151369 -1.780576 0.178669 200 12 141
-1.266695 -0.460966 0.441876 46 97 163
1.046952 0.194542 0.308668 194 140 152
0.471040 -1.694718 0.699716 157 18 184
0.411525 -1.684545 0.708773 153 18 184
-0.148178 0.025604 0.498238 118 129 167
-1.288663 -0.471710 0.430704 45 97 162
-1.037679 -1.277562 0.638290 61 45 179
-1.028277 -1.248761 0.644350 61 47 179
-0.534749 -0.246025 0.569589 93 111 173
0.631590 -1.624235 0.348637 167 22 155
-0.730676 0.283551 0.313894 80 145 152
0.544062 -1.750470 0.695314 162 14 183
0.441839 0.008139 0.467329 155 128 165
0.968257 0.290220 0.254712 189 146 148
-0.665594 -0.256900 0.553929 85 111 172
0.271117 -0.414639 0.650810 144 100 180
0.233842 -0.401858 0.665467 142 101 181
0.202064 -0.388395 0.676561 140 102 182
-0.787150 0.373125 0.146044 77 151 139
-1.371741 -0.285852 0.262243 40 109 148
0.174017 -0.376598 0.689540 138 103 183
0.390660 -0.065413 0.503469 152 123 168
-0.322735 0.337256 0.265737 106 149 148
0.563390 0.099886 0.419551 163 134 161
0.591716 0.097136 0.416440 165 133 161
1.030182 0.110488 0.378158 193 134 157
1.119425 0.096514 0.353730 198 133 156
0.554487 0.340607 0.226513 162 149 145
0.530567 0.342817 0.210752 161 149 144
-0.708681 0.238254 0.360723 82 143 156
-0.678572 0.236340 0.365663 84 142 156
-0.442226 -0.494250 0.868626 99 95 197
-1.797740 -0.972552 -0.198936 12 64 111
-0.356795 0.356709 0.235527 104 150 146
-0.333174 -0.476858 0.887877 106 96 199
-1.311544 -0.482305 0.420156 43 96 161
-1.335654 -0.492770 0.410139 42 95 160
-0.525580 -0.365214 0.751202 93 104 188
-0.118559 -0.410149 0.861323 119 101 197
-0.145752 -0.405089 0.865581 118 101 197
1.146238 1.602584 1.574144 200 231 254
-0.960678 0.302275 0.129545 66 147 137
-0.916081 0.321388 0.148866 69 148 139
-0.937444 0.310251 0.137981 67 147 138
-0.981290 0.290283 0.118170 64 146 136
-0.891251 0.326064 0.154919 70 148 139
-0.867346 0.332701 0.162182 72 149 140
0.166168 0.308680 0.177554 138 147 141
0.108601 0.314416 0.184667 134 147 142
0.080738 0.315434 0.186183 132 148 142
0.052954 0.319790 0.189936 130 148 142
-0.305049 0.362413 0.241501 108 151 146
-0.278418 0.364394 0.243151 109 151 147
-0.215396 0.351843 0.236011 113 150 146
-0.028209 0.297864 0.217883 125 146 145
-0.239930 -0.468863 0.903153 112 97 200
-1.354410 -0.506648 0.394189 41 94 159
-1.373590 -0.521046 0.378913 39 94 158
-1.171677 0.108892 0.177547 52 134 141
-1.281772 0.056012 0.119387 45 131 137
-1.299348 0.039129 0.101542 44 130 135
1.115056 -1.746960 0.168862 198 14 141
1.150274 -1.754517 0.165679 200 14 140
-0.082062 0.372266 0.144451 122 151 139
-1.355452 -0.451251 0.349733 41 98 155
-0.501604 -0.126455 0.542215 95 119 171
0.142140 -0.370470 0.697100 136 103 183
-1.008487 0.031298 0.352989 63 129 155
-0.934579 -0.246875 0.550148 67 111 171
-1.390246 -0.537306 0.360560 38 92 156
0.028042 -0.334361 0.682802 129 106 182
-1.337588 -0.619589 0.443727 42 87 163
-1.295222 -0.584876 0.462824 44 89 164
-0.668822 -0.424159 0.750030 84 100 188
-1.707225 -1.102743 -0.025922 18 56 125
-0.504941 0.073759 0.496886 95 132 167
0.819819 0.287222 0.305715 179 146 152
-0.710009 0.264516 0.334575 82 144 154
0.625615 0.333409 0.260189 167 149 148
0.368554 0.336199 0.102357 151 149 135
-1.120846 0.218290 0.090243 56 141 134
0.860733 -1.849359 0.291754 182 8 151
-1.098923 -0.001382 0.315501 57 127 152
0.512609 -1.748119 0.713841 160 14 185
-1.230449 0.033788 0.199249 49 129 143
0.111237 -0.362510 0.704801 134 104 184
1.605365 -0.870189 -0.740772 229 71 67
0.298528 0.034490 0.454704 146 129 164
1.126213 0.126729 0.329217 199 135 154
-1.547234 -1.326141 0.111937 28 42 136
-1.412884 -0.561109 0.351371 37 91 155
-0.265989 0.407612 0.186741 110 153 142
-0.523749 0.167963 0.438330 94 138 162
1.112873 0.894345 0.075211 198 185 133
1.092981 0.877388 0.064550 197 184 132
1.069813 0.864386 0.054221 195 183 131
1.053444 0.847539 0.053673 194 182 131
-1.041478 -0.552708 0.602637 61 91 176
-0.055427 -0.045499 0.524352 123 124 169
0.449418 -1.883622 0.774778 156 6 190
-0.027638 -0.045100 0.524276 125 124 169
-0.202652 -0.307558 0.710492 114 107 184
0.773085 -0.001703 0.455184 176 127 164
0.718306 -0.013347 0.459749 173 126 164
0.384855 -0.004912 0.463404 152 127 164
-0.671751 0.080143 0.462399 84 132 164
-0.212637 0.043734 0.509712 113 130 168
-1.561981 -1.039965 -0.015844 27 60 126
-1.343760 -0.648955 0.437932 41 85 162
-1.361609 -0.179399 0.239148 40 116 146
-1.095663 -1.251883 0.587244 57 46 174
0.556771 0.158322 0.369976 163 137 157
-0.865257 -0.134114 0.482139 72 119 166
-0.495618 0.188700 0.423830 95 139 161
0.382850 -1.681321 0.712407 151 19 185
0.224577 0.063664 0.433543 141 131 162
-0.182284 -0.180867 0.602170 115 115 176
-0.833233 -0.204115 0.551555 74 114 172
0.932863 0.266705 0.289831 186 144 150
-0.763100 -0.001772 0.466288 78 127 165
-0.077543 -0.361317 0.808332 122 104 192
0.043954 -0.363590 0.755274 130 104 188
-1.204828 0.167644 0.050655 50 138 131
0.992831 -1.679226 0.169816 190 19 141
-0.963657 -0.598950 0.659481 66 88 180
0.380541 0.031403 0.449694 151 129 163
-1.237081 -0.024217 0.239801 48 126 146
-1.197717 0.001485 0.268453 51 127 149
-0.669178 0.182809 0.400388 84 139 159
-0.623039 0.183758 0.411551 87 139 160
0.910377 0.192632 0.361772 185 140 156
-1.746140 -0.972600 -0.187294 16 64 112
-1.622634 -1.103912 -0.026858 24 56 125
0.377256 -1.913811 0.770763 151 4 189
-1.237058 -0.561602 0.492591 48 91 167
0.457812 0.220948 0.288891 156 141 150
-1.031654 0.022202 0.344153 61 129 155
-0.051751 -0.077974 0.541515 124 122 171
0.356374 -0.063219 0.496685 150 123 167
-0.856799 -0.215662 0.548253 72 113 171
0.535615 0.099735 0.418943 161 134 161
0.723808 0.130111 0.399461 173 136 159
-0.607251 -0.449396 0.809230 88 98 192
-0.536014 -0.388185 0.778208 93 102 190
-0.649995 -0.412993 0.751462 86 101 188
-0.064296 0.265506 0.286398 123 144 150
0.834556 -1.057414 -0.937247 180 59 51
-0.637877 -0.256003 0.556896 86 111 172
0.736576 0.362953 0.232051 174 151 146
0.710051 0.363902 0.232839 172 151 146
0.683272 0.362287 0.231542 171 151 146
-0.343140 0.338135 0.256369 105 149 148
-0.270432 -0.408684 0.862242 110 101 197
-0.743801 0.355801 0.188435 80 150 142
1.134096 1.588501 1.565649 199 230 254
-0.063839 0.048248 0.469205 123 130 165
0.225139 -1.909394 0.739378 141 4 187
0.080833 -0.357524 0.710757 132 104 184
0.051465 -0.350216 0.716891 130 105 185
0.021193 -0.346956 0.721519 128 105 185
-0.008719 -0.343510 0.726072 126 105 186
-0.038689 -0.338532 0.731351 125 105 186
-0.067714 -0.333091 0.736181 123 106 186
0.048684 -0.033699 0.537369 130 125 170
-0.771791 0.072545 0.436306 78 132 162
-0.822312 -0.180421 0.534959 75 116 170
-0.848857 -0.181571 0.534231 73 115 170
-0.263107 0.170214 0.394525 110 138 159
-0.250008 0.360975 0.238930 111 150 146
-0.180018 0.349613 0.225516 116 150 145
0.134874 -0.379696 0.738143 136 103 187
0.164862 -0.391370 0.728017 138 102 186
-0.123975 0.276759 0.299743 119 145 151
0.194927 0.303478 0.172547 139 147 141
0.146578 -0.480575 0.894444 136 96 199
-0.688264 0.262711 0.342894 83 144 155
-0.662243 0.264572 0.345161 85 144 155
1.175881 -1.754087 0.152887 202 14 139
1.205265 -1.768459 0.145086 204 13 139
0.487361 0.350065 0.174872 158 150 141
0.471277 -1.845167 0.761466 157 8 189
-0.026002 -0.075007 0.545529 125 122 171
-0.483435 -0.244747 0.578400 96 111 174
-0.723412 -1.913263 0.536514 81 4 170
-0.096263 -0.326134 0.741303 121 106 187
-0.154340 0.370316 0.186219 117 151 142
-1.031285 -0.294848 0.521816 61 108 169
0.485790 0.257737 0.268399 158 144 149
0.458232 0.245913 0.263412 156 143 148
-0.002233 -0.330194 0.688191 127 106 183
0.354878 0.264365 0.230698 150 144 146
0.327326 0.264338 0.231173 148 144 146
-0.625018 -0.399945 0.748082 87 101 187
-0.981766 -0.459510 0.600249 64 97 175
0.266540 -0.055481 0.523232 144 124 169
-0.249258 0.256240 0.332714 111 144 154
0.553230 0.317943 0.253340 162 148 147
0.572224 0.335683 0.245228 163 149 147
0.594357 0.333781 0.253695 165 149 147
1.318682 1.784224 1.500388 211 242 248
-0.004594 -0.221063 0.595119 127 113 175
-1.755223 -1.209635 0.056459 15 49 131
-0.645848 -0.473374 0.791637 86 97 191
-0.316697 0.091021 0.465296 107 133 165
-1.071339 -0.526193 0.581548 59 93 174
0.485338 -1.652809 0.636702 158 20 178
-0.810259 -0.013091 0.447196 75 126 163
-0.368792 0.036967 0.510396 103 130 168
0.022585 -0.036710 0.534428 128 125 170
-1.082187 0.170941 0.192870 58 138 143
0.188872 0.063548 0.440916 139 131 163
1.115350 0.858522 0.089679 198 183 134
1.097743 0.842874 0.078032 197 182 133
1.071360 0.831483 0.072766 195 181 133
1.046945 0.831505 0.062126 194 181 132
1.028340 0.820305 0.063078 193 180 132
1.009746 0.808524 0.057438 191 179 132
-0.900652 -0.002635 0.408215 70 127 160
1.151219 0.112565 0.323891 200 134 153
-0.426615 -0.370125 0.796777 100 103 191
-1.419160 -0.197538 0.141623 37 114 138
-0.265384 -0.341002 0.777010 110 105 190
-1.253373 0.145079 0.014324 47 137 128
-1.317094 -0.117428 0.242612 43 120 147
-1.076213 -1.212265 0.597902 58 49 175
-0.624977 0.315350 0.296340 87 148 151
-0.569996 0.314705 0.295297 91 147 151
-0.332425 -0.385774 0.832989 106 102 194
-1.297848 -0.112960 0.257806 44 120 148
-0.597681 0.315068 0.296130 89 148 151
-0.651331 0.310650 0.292610 85 147 151
-0.677478 0.309546 0.291043 84 147 150
-0.703520 0.308706 0.289683 82 147 150
-0.728708 0.304363 0.285375 81 147 150
0.512963 0.039045 0.458018 160 130 164
0.937601 0.294000 0.259519 187 146 148
-0.829846 -0.240024 0.565480 74 112 173
1.203554 -1.739190 0.120483 204 15 137
1.171351 -1.737516 0.132243 202 15 138
1.073648 -1.707157 0.153923 195 17 139
1.021072 -1.695510 0.165270 192 18 140
-0.946033 0.260479 0.197268 67 144 143
-0.965021 0.260017 0.186439 65 144 142
-0.409661 0.160441 0.430063 101 138 162
-0.473407 0.163651 0.441088 97 138 163
-0.668383 0.106139 0.447127 84 134 163
-0.646137 0.123820 0.450697 86 135 163
0.293633 0.095526 0.415930 146 133 161
-1.609350 -0.965988 -0.095913 24 65 119
0.881793 0.191670 0.359528 183 140 156
0.004336 -0.394394 0.827358 127 102 194
-0.826291 0.179978 0.357645 74 139 156
-0.126033 -0.569009 0.961509 119 90 205
-0.870010 0.347628 0.137135 72 150 138
1.046072 -1.707143 0.164387 194 17 140
-0.072131 0.166564 0.388293 122 138 158
-0.099362 0.169202 0.391898 121 138 159
1.233635 -1.678135 -0.034478 206 19 124
-0.542246 0.105977 0.480386 92 134 166
0.979240 0.085388 0.403751 189 133 160
-1.299227 0.058903 0.067920 44 131 132
0.682816 0.286576 0.306161 171 146 152
0.388240 -1.845885 0.769146 152 8 189
1.136543 -1.903124 0.221638 199 4 145
-1.145862 -0.511653 0.544573 54 94 171
0.820866 0.359362 0.227020 179 150 145
0.792753 0.361814 0.229799 178 151 145
0.764654 0.364904 0.233339 176 151 146
-1.772819 -1.261691 0.070062 14 46 133
-1.792449 -1.272521 0.055946 13 45 131
-1.815666 -1.282464 0.047639 11 44 131
-1.832085 -1.305173 0.037211 10 43 130
-1.624285 -0.994713 -0.120948 23 63 117
-1.643040 -1.007208 -0.123932 22 62 117
0.185090 0.252485 0.271602 139 143 149
-1.283783 0.033815 0.146755 45 129 139
-0.371783 -0.450476 0.868124 103 98 197
-0.346690 -0.446199 0.873338 105 98 198
-0.320694 -0.443307 0.876730 107 99 198
-0.294947 -0.441515 0.878144 108 99 198
-0.269048 -0.438031 0.882754 110 99 198
-0.242832 -0.436457 0.885518 112 99 199
-0.216597 -0.432930 0.890086 113 99 199
-0.189651 -0.434908 0.886262 115 99 199
-0.162863 -0.434384 0.887089 117 99 199
-0.136025 -0.433919 0.887511 118 99 199
-0.109679 -0.433392 0.888946 120 99 199
-0.087578 -0.440103 0.892348 121 99 199
-0.063864 -0.435437 0.887021 123 99 199
-0.035366 -0.435404 0.886894 125 99 199
0.038663 0.139582 0.412191 129 136 160
1.081402 0.294435 0.216124 196 146 144
-0.085605 0.327347 0.199534 122 148 143
-0.794295 0.349554 0.180082 76 150 141
-0.073623 -0.347168 0.772662 122 105 189
-0.044917 -0.352385 0.768325 124 104 189
0.001691 -0.465644 0.907007 127 97 200
0.542067 -1.907821 0.751442 162 4 188
-0.635601 0.264287 0.343970 86 144 155
0.759975 0.293588 0.305952 175 146 152
0.727581 0.287767 0.307134 173 146 152
-1.668762 -1.002023 -0.136685 21 62 116
-0.124929 -0.323008 0.744170 119 106 187
-0.152739 -0.324573 0.744099 117 106 187
0.155049 0.072966 0.443707 137 132 163
0.592247 -1.847486 0.711891 165 8 184
0.493624 -1.813601 0.747687 158 10 187
-1.162713 -0.111588 0.351106 53 120 155
-0.053533 -0.463006 0.909746 124 97 200
0.241685 0.088548 0.408000 142 133 160
-0.816809 0.367162 0.145908 75 151 139
-0.293670 0.405674 0.186062 108 153 142
-0.458810 0.257419 0.335567 98 144 154
0.574585 0.307872 0.269909 164 147 149
0.381812 0.265846 0.231695 151 144 146
-0.454378 0.352838 0.231982 98 150 146
-0.511010 0.355225 0.235572 94 150 146
0.413306 -1.845663 0.770244 153 8 189
0.003501 -0.526143 0.950354 127 93 204
-1.702508 -1.005884 -0.132692 18 62 116
-1.730344 -1.002739 -0.130036 17 62 116
0.655562 0.339516 0.258853 169 149 148
-1.757916 -1.001786 -0.129058 15 62 116
-1.784134 -1.005564 -0.132145 13 62 116
-0.427168 0.326851 0.255140 100 148 148
-1.169010 -0.050772 0.314556 52 124 152
-1.809991 -1.005722 -0.133283 12 62 116
-0.180365 -0.319211 0.747103 116 107 187
-0.038925 0.242874 0.313886 125 143 152
-1.108513 -0.216423 0.445872 56 113 163
-0.207301 -0.322863 0.745081 114 106 187
-0.900494 0.238429 0.258182 70 143 148
-1.831937 -1.010388 -0.128301 10 62 117
1.124605 0.827618 0.111696 199 181 136
1.095526 0.809834 0.102142 197 179 135
1.076199 0.807775 0.091254 196 179 134
1.055499 0.805955 0.082200 194 179 134
1.028760 0.794485 0.076830 193 178 133
1.006397 0.784107 0.067207 191 178 132
0.981769 0.753121 0.055458 190 176 131
1.897485 0.095624 -0.537315 248 133 83
-1.337906 -0.130404 0.228536 42 119 145
-0.120757 0.080570 0.453467 119 132 164
-1.860992 -1.014343 -0.137533 8 62 116
0.684870 0.385411 0.204511 171 152 143
-1.885906 -1.023248 -0.154598 7 61 114
-1.909002 -1.038593 -0.167135 5 60 113
-1.927519 -1.052543 -0.171697 4 59 113
0.800248 0.598185 -0.138382 178 166 116
0.288215 0.113687 0.393110 145 135 159
0.539303 0.292357 0.260896 161 146 148
0.614173 0.157904 0.376966 166 137 157
0.032931 -0.394948 0.826086 129 102 194
-1.126265 0.150663 0.170750 55 137 141
-0.151173 -0.595718 0.970657 117 89 205
-0.175140 -0.610732 0.969236 116 88 205
-0.883109 -0.108917 0.458003 71 120 164
1.083722 0.268009 0.235006 196 144 146
1.109968 0.255071 0.233233 198 144 146
0.432410 0.245265 0.262151 155 143 148
-0.888465 0.285610 0.203862 70 146 143
-0.847008 0.295438 0.224883 73 146 145
-1.107128 -0.620525 0.583292 56 87 174
-0.456230 -0.375803 0.797455 98 103 191
-0.917117 0.272871 0.200298 69 145 143
-0.869118 0.285686 0.214669 72 146 144
-0.800107 0.310090 0.240252 76 147 146
-1.169799 0.069515 0.227729 52 132 145
-0.824389 0.296041 0.242571 74 146 147
-0.372625 0.123329 0.448925 103 135 163
-0.758979 -0.421314 0.690880 79 100 183
0.552846 0.300536 0.270010 162 147 149
0.017964 0.022905 0.492757 128 129 167
0.099806 0.024155 0.495637 133 129 167
0.122196 0.018503 0.499637 135 128 167
-1.144868 -0.043470 0.321729 54 124 153
-1.097447 -0.020195 0.329611 57 126 154
-0.432581 0.113111 0.470870 99 134 165
-0.461147 0.095756 0.486675 98 133 166
0.461472 -1.629508 0.606842 156 22 176
-1.418045 -0.490732 0.308216 37 95 152
-1.099849 -0.493654 0.562710 57 95 172
-0.633053 0.064935 0.483488 87 131 166
0.631870 0.253934 0.323884 167 144 153
-1.162055 -0.834980 0.565644 53 73 173
0.849403 0.353408 0.220831 181 150 145
-1.101091 -0.775970 0.612564 57 77 176
-1.699483 -1.247950 0.085708 19 47 134
-1.721775 -1.242011 0.081803 17 47 134
-1.748399 -1.247639 0.078965 16 47 133
-0.769279 0.353604 0.184867 78 150 142
-0.519104 -0.467927 0.833419 94 97 194
-0.498187 -0.476446 0.840622 95 96 195
-0.473619 -0.462370 0.842958 97 97 195
-0.444199 -0.464842 0.849293 99 97 196
-0.420235 -0.470752 0.864242 100 97 197
-0.397702 -0.443901 0.857733 102 99 196
-1.591467 -1.195111 0.035598 26 50 130
-1.620443 -1.194752 0.035336 24 50 130
-1.648517 -1.189347 0.041726 22 50 130
-1.676030 -1.184440 0.047658 20 51 131
-1.703694 -1.183651 0.048317 18 51 131
-1.731644 -1.183893 0.048603 17 51 131
-1.752573 -1.181271 0.039968 15 51 130
-1.779559 -1.188033 0.036558 14 50 130
-1.802348 -1.204376 0.024275 12 49 129
-1.823669 -1.215194 0.012815 11 49 128
-1.846706 -1.227586 0.000835 9 48 127
-1.867033 -1.250805 -0.013061 8 46 126
-0.571915 0.267150 0.346730 91 144 155
-0.874042 -0.038920 0.428780 71 125 162
-0.007552 -0.436682 0.885840 127 99 199
0.019902 -0.438971 0.884205 128 99 198
0.709227 0.340229 0.259597 172 149 148
-0.798129 0.332626 0.212107 76 149 144
-0.417997 -0.535895 0.886622 100 93 199
-0.392345 -0.521920 0.889345 102 93 199
-0.364972 0.330218 0.258332 104 148 148
-0.165251 -1.906809 0.637299 116 4 178
0.619359 -1.620059 0.388033 166 23 158
0.327921 -1.920199 0.758902 148 3 188
0.525097 0.270322 0.279440 160 145 150
0.511849 0.254169 0.282876 160 144 150
1.090720 0.237501 0.256569 197 143 148
1.117349 0.233106 0.252249 198 142 147
0.897489 0.275724 0.292712 184 145 151
0.587527 0.156264 0.375687 164 137 157
-0.922474 0.155461 0.330930 68 137 154
-0.995236 -0.536821 0.619834 64 93 177
0.324226 -1.804560 0.757343 148 11 188
-0.234522 -0.324175 0.744403 112 106 187
-0.204564 -0.015642 0.554970 114 126 172
0.129904 -0.034590 0.535917 135 125 170
-0.097643 0.249104 0.322100 121 143 153
-0.983235 -0.270998 0.540055 64 110 171
-0.115603 -0.069165 0.548260 120 123 171
-0.486971 0.262853 0.341121 96 144 155
0.299767 0.264282 0.231467 146 144 146
-0.483099 0.353421 0.233438 96 150 146
-0.565876 0.358613 0.239119 91 150 146
-0.075746 -0.525980 0.948017 122 93 204
-0.101782 -0.527152 0.946771 121 93 203
-0.021689 -0.527246 0.947123 126 93 204
-0.846478 -0.617433 0.735157 73 87 186
-0.871773 -0.626983 0.723378 71 87 185
-1.439779 -0.502488 0.287765 35 95 150
0.688049 0.406624 0.174569 171 153 141
-1.333705 -0.257929 0.298430 42 111 151
1.020469 0.258123 0.261555 192 144 148
-1.821984 -1.247237 0.031923 11 47 129
0.573561 -1.579921 0.301511 164 25 151
0.494231 -1.594451 0.424741 159 24 161
0.525449 -1.605017 0.424251 161 24 161
-0.872128 0.240890 0.269456 71 143 149
0.453090 -1.647869 0.642348 156 21 179
-0.959207 -0.263979 0.547906 66 110 171
1.098188 0.127312 0.341806 197 135 155
-0.931596 -0.476946 0.633024 68 96 178
0.213816 -0.277631 0.609117 141 109 176
1.124543 0.792381 0.126808 199 178 137
1.100875 0.776366 0.127866 197 177 137
1.076687 0.789094 0.106101 196 178 135
1.053565 0.772751 0.105482 194 177 135
1.031073 0.764413 0.095785 193 177 135
1.008287 0.744251 0.084019 191 175 134
0.969468 0.721013 0.049646 189 174 131
0.954145 0.702830 0.045831 188 173 131
0.934378 0.700881 0.024184 187 172 129
0.196649 -0.260073 0.607328 140 110 176
1.370808 -1.025451 -0.856291 214 61 58
0.166891 -0.260225 0.608022 138 110 176
1.805061 0.072670 -1.131259 242 132 35
0.812243 0.589523 -0.082035 179 165 120
0.800794 0.586101 -0.105802 178 165 118
0.783250 0.562060 -0.124544 177 163 117
0.763270 0.542684 -0.151556 176 162 115
-0.347233 0.313474 0.274464 105 147 149
-1.771457 -1.294022 0.078409 14 44 133
-1.754579 -1.281420 0.087971 15 44 134
-1.693038 -1.273847 0.100260 19 45 135
-1.724826 -1.283515 0.096240 17 44 135
-0.188853 -0.603621 0.959379 115 88 205
0.673192 0.315324 0.285072 170 148 150
-0.363228 -0.490224 0.888587 104 96 199
-1.000003 -0.501817 0.605649 63 95 176
-0.025734 -0.464496 0.908103 125 97 200
0.478056 0.229556 0.287542 157 142 150
1.390115 0.132450 -1.328425 216 136 19
0.217227 -0.372506 0.642982 141 103 179
-0.114972 0.378228 0.152611 120 152 139
-0.788917 -0.514326 0.747761 77 94 187
-0.754673 0.315889 0.254450 79 148 147
0.061820 -0.398359 0.822613 131 101 193
0.294219 -1.852538 0.753436 146 8 188
0.583789 0.283346 0.293137 164 145 151
-1.121359 0.170166 0.141022 56 138 138
0.117951 -0.352487 0.665484 135 104 181
0.854457 0.399780 0.165763 181 153 140
-1.055905 -0.634657 0.624415 60 86 177
-0.916336 0.237751 0.232151 69 143 146
0.213191 -0.454827 0.814925 141 98 193
-1.278905 -0.566501 0.469294 45 91 165
0.491601 -1.641040 0.597994 158 21 175
-0.653366 0.291294 0.322281 85 146 153
-1.123170 -0.502144 0.553606 55 95 172
0.087760 -0.421616 0.850403 133 100 196
-1.559811 -1.256908 0.077464 28 46 133
-1.587527 -1.254760 0.079487 26 46 133
-1.616072 -1.253148 0.080775 24 46 133
-1.644519 -1.250796 0.084091 22 46 134
-1.671906 -1.247378 0.088405 20 47 134
-0.642977 -0.506560 0.810336 86 94 192
-0.620789 -0.498138 0.820738 87 95 193
-0.597734 -0.479523 0.825729 89 96 194
-0.107512 -0.462103 0.908983 120 97 200
-0.782482 0.195736 0.363561 77 140 156
-0.394538 -0.476781 0.876789 102 96 198
0.135438 -0.259025 0.611075 136 110 176
-1.505220 -1.154347 0.085378 31 53 134
-1.517095 -1.175302 0.055618 30 51 131
-1.540905 -1.196246 0.043194 29 50 130
-1.568823 -1.200957 0.040316 27 50 130
-0.145551 0.386503 0.161617 118 152 140
-1.660302 -0.952374 -0.235540 21 66 108
-0.468839 -0.430551 0.825138 97 99 194
-0.326741 -0.243166 0.593422 106 111 175
-1.379097 -0.435958 0.315033 39 99 152
-1.271331 -0.375530 0.378278 46 103 158
-1.121185 -0.293142 0.464645 56 108 164
-1.034586 -0.253155 0.509699 61 111 168
-1.561770 -1.222949 0.060705 27 48 132
-0.258267 0.305749 0.282345 111 147 150
-0.240230 0.280386 0.307093 112 145 152
-0.995968 -0.159998 0.464537 64 117 164
-1.087815 -0.177173 0.435975 58 116 162
-0.510322 -0.385479 0.781147 94 102 190
-1.212157 0.047096 0.214147 50 130 144
-0.638108 0.151809 0.428377 86 137 162
0.047476 -0.441562 0.881924 130 99 198
0.076482 -0.443970 0.879621 132 99 198
-0.172426 -0.210580 0.608016 116 114 176
0.504099 0.226339 0.302005 159 142 151
0.403901 0.222992 0.290338 153 142 150
-0.343302 -0.501510 0.899606 105 95 200
-0.110695 0.327198 0.210206 120 148 144
-0.261510 -0.324868 0.743676 110 106 187
-0.090502 0.048952 0.470788 121 130 165
0.915407 -1.850410 0.284973 185 8 150
-1.759799 -1.129576 -0.001673 15 54 127
-0.070093 0.138506 0.410319 123 136 160
-0.908706 -0.399533 0.601374 69 101 176
-1.341038 -0.111916 0.198047 42 120 143
-0.847648 0.249417 0.284881 73 143 150
-0.944422 0.222199 0.248116 67 142 147
0.267710 0.222812 0.291475 144 142 150
-0.881691 0.059579 0.388226 71 131 158
-0.841121 -0.446092 0.654245 73 98 180
0.271495 -1.815413 0.748461 144 10 187
-0.385296 0.034447 0.507184 102 129 168
-0.850064 -0.028288 0.435719 73 125 162
-0.848364 0.333063 0.172958 73 149 141
-0.289016 -0.327140 0.742655 109 106 187
-0.312697 -0.463929 0.891603 107 97 199
-0.315769 -0.325491 0.742909 107 106 187
0.172253 -0.491583 0.893864 138 95 199
0.347600 -1.904145 0.767617 149 4 189
0.268240 0.090129 0.409977 144 133 160
-0.011513 0.230772 0.304051 126 142 152
-0.510149 0.260314 0.348996 94 144 155
0.644662 0.125226 0.392412 168 135 159
-0.538721 0.356631 0.237427 93 150 146
-0.049430 -0.526695 0.948098 124 93 204
0.185094 -0.544499 0.918108 139 92 201
0.155554 -0.544794 0.926667 137 92 202
-0.827148 -0.605941 0.745391 74 88 187
0.998071 -1.935946 0.281703 191 2 150
-0.342252 -0.329165 0.740707 105 106 187
-1.017905 -0.103138 0.412339 62 121 160
0.358668 -1.685782 0.718285 150 18 185
0.641281 0.158198 0.375954 168 137 157
0.300982 0.001025 0.468440 146 127 165
-0.326260 0.041302 0.515102 106 130 169
-0.932157 -0.119494 0.446265 68 119 163
-0.211930 0.281769 0.307955 113 145 152
0.394285 -1.635154 0.653398 152 22 180
0.424326 -1.639031 0.649299 154 21 179
-0.373548 0.275782 0.302746 103 145 151
-1.301373 -0.318247 0.336296 44 107 154
0.551866 0.234898 0.314169 162 142 152
0.558851 0.210663 0.329297 163 141 154
1.145340 0.779133 0.148289 200 177 139
1.125307 0.758032 0.144384 199 176 139
1.104822 0.755049 0.136220 197 176 138
1.083587 0.753813 0.128276 196 176 137
1.057863 0.739672 0.120539 194 175 137
1.035683 0.730178 0.109860 193 174 136
1.023108 0.715603 0.102463 192 173 135
0.998496 0.692340 0.082744 191 172 134
0.976244 0.693848 0.066010 189 172 132
0.953626 0.676880 0.051183 188 171 131
0.930830 0.668707 0.041898 186 170 130
0.910648 0.648150 0.033174 185 169 130
0.871741 0.627694 0.005959 183 168 127
0.855765 0.620605 -0.012195 182 167 126
0.834016 0.596365 -0.032602 180 166 124
0.813738 0.577803 -0.059007 179 164 122
0.796802 0.562222 -0.076750 178 163 121
0.777017 0.546652 -0.094197 177 162 119
0.763999 0.532399 -0.116310 176 162 117
-0.210504 0.200939 0.376218 114 140 157
-1.105431 -0.748189 0.604841 57 79 176
-1.125603 -0.769108 0.589640 55 78 175
-1.149462 -0.770804 0.566762 54 77 173
-1.669923 -1.282122 0.102321 21 44 135
-1.640927 -1.282148 0.104669 22 44 135
-1.613134 -1.283903 0.101675 24 44 135
-1.584763 -1.286588 0.099240 26 44 135
-1.556471 -1.288189 0.098167 28 44 135
-1.528467 -1.290257 0.093008 30 44 134
0.946389 -1.857531 0.278080 187 7 149
-0.451248 0.396971 0.176987 98 153 141
0.014622 -0.357062 0.760943 128 104 188
-1.479916 -1.289482 0.103798 33 44 135
-1.500645 -1.288353 0.092288 31 44 134
-0.183575 0.202074 0.378047 115 140 157
-1.770261 -0.969213 -0.193470 14 65 111
-0.725508 0.322852 0.255072 81 148 148
-0.779973 0.318263 0.238852 77 148 146
-0.149860 0.320514 0.244420 117 148 147
-0.118859 0.312769 0.235857 119 147 146
-0.181126 0.325638 0.251004 115 148 147
-0.235656 0.329458 0.263650 112 148 148
-0.267712 0.333896 0.261010 110 149 148
-0.174985 -0.304067 0.711726 116 108 184
1.118963 0.150999 0.313252 198 137 152
0.598427 -1.616516 0.393490 165 23 159
-0.805305 0.160587 0.378083 76 138 157
0.089007 -0.502321 0.922346 133 95 202
-0.105483 0.193111 0.377482 120 140 157
-1.511377 -1.262200 0.084565 31 46 134
-1.532256 -1.259347 0.073951 29 46 133
-0.770475 -0.534980 0.762287 78 93 189
-0.869218 0.310752 0.189666 72 147 142
-0.664628 -0.518485 0.796489 85 94 191
0.345655 0.151103 0.370901 149 137 157
-1.222493 -0.070925 0.292875 49 123 151
-0.133805 -0.465078 0.905301 118 97 200
1.184563 0.105874 0.316946 203 134 153
-0.081588 0.196621 0.370664 122 140 157
0.874756 -1.921449 0.311579 183 3 152
0.259121 -1.866067 0.747589 144 7 187
-1.027381 -1.234579 0.641175 61 47 179
0.159623 0.153188 0.366436 137 137 157
0.127598 0.152692 0.373492 135 137 157
0.098723 0.156259 0.377484 133 137 157
0.068928 0.159660 0.381674 131 137 158
-0.406699 -0.385794 0.820412 101 102 193
-0.429286 -0.401545 0.821329 100 101 193
-0.455712 -0.409068 0.817953 98 101 193
-0.476429 -0.405987 0.811316 97 101 193
-0.501537 -0.410608 0.806159 95 101 192
-0.522588 -0.406654 0.800095 94 101 192
-0.549321 -0.414673 0.802899 92 100 192
-0.578536 -0.410463 0.790235 90 101 191
-0.597768 -0.429518 0.797867 89 99 191
-0.621720 -0.430116 0.778009 87 99 190
-0.649690 -0.440381 0.775104 86 99 190
-0.671817 -0.448826 0.764929 84 98 189
-0.694207 -0.457706 0.754322 83 98 188
-0.535493 0.068864 0.500350 93 132 167
0.011264 0.112307 0.434500 128 134 162
0.245963 -1.906013 0.740422 143 4 187
0.411134 -0.296186 0.577048 153 108 174
0.106011 -0.447100 0.876419 134 98 198
0.136954 -0.450784 0.871570 136 98 197
0.110571 -0.259248 0.611284 134 110 176
0.039994 0.165093 0.387271 130 138 158
-0.750658 -0.157101 0.516665 79 117 169
-0.144694 0.342646 0.210102 118 149 144
-0.261300 -0.496869 0.913533 110 95 201
-0.236276 -0.498041 0.917604 112 95 201
-0.021956 0.161210 0.393976 126 138 159
-1.450466 -1.317067 0.120379 35 42 137
0.653231 0.026638 0.442971 169 129 163
-1.595441 -1.135212 -0.007249 25 54 126
-1.342218 -0.163555 0.244484 41 117 147
-1.301177 -0.137376 0.272851 44 118 149
-1.101165 0.157408 0.178507 57 137 141
0.020645 0.244609 0.267235 128 143 149
0.088083 -0.346655 0.671121 133 105 181
-1.046657 -1.238340 0.623393 60 47 177
0.693066 0.162917 0.381219 171 138 158
0.399577 -1.617510 0.618447 152 23 177
-0.045329 -1.873530 0.676411 124 6 182
-0.199248 -1.893707 0.641299 114 5 179
-0.066678 -0.560545 0.965663 123 91 205
-0.043987 0.167746 0.390860 124 138 159
-0.126109 0.169292 0.392888 119 138 159
0.458342 -1.607149 0.528349 156 23 170
-1.058370 -0.290693 0.510580 60 108 168
-0.659000 0.020986 0.487693 85 129 166
-0.232531 -0.011389 0.555713 112 126 172
-0.962927 0.078657 0.348850 66 132 155
-1.320726 -0.178569 0.279986 43 116 150
0.085237 0.110940 0.432845 132 134 162
0.184647 0.016215 0.486705 139 128 166
-1.062255 -0.137138 0.419773 59 118 161
-1.353572 -0.273300 0.281788 41 110 150
-1.127556 0.076692 0.245214 55 132 147
-1.319286 -0.601085 0.451908 43 88 163
-0.597428 -0.405541 0.767436 89 101 189
-0.934550 0.329921 0.107711 67 148 136
0.122909 -0.406239 0.813840 135 101 193
0.650459 0.059590 0.427762 168 131 162
0.094507 -0.534531 0.936328 133 93 203
-1.734505 -1.099962 -0.023069 16 56 125
-0.149206 0.089556 0.445097 117 133 163
-1.300028 -0.085360 0.232848 44 122 146
-0.368429 -0.330579 0.738695 104 106 187
0.257566 -0.105932 0.557273 143 120 172
-0.108446 -0.032698 0.526720 120 125 170
0.685244 -0.004316 0.463298 171 127 164
-0.126923 0.253814 0.328269 119 144 153
-0.395159 -0.327341 0.739447 102 106 187
0.481197 0.151804 0.370845 158 137 157
-1.137320 -0.161510 0.401425 54 117 159
0.071736 -0.176226 0.589118 132 116 175
-0.756133 -0.210393 0.554876 79 114 172
-0.106089 -0.362220 0.807756 120 104 192
-1.253199 -0.175608 0.334933 47 116 154
1.134079 0.722807 0.154387 199 174 139
-0.178680 0.140091 0.413661 116 136 160
1.078624 0.722058 0.137819 196 174 138
1.059649 0.709943 0.132075 195 173 138
1.039451 0.704849 0.117114 193 173 136
1.024940 0.684694 0.109079 192 171 136
1.003205 0.664717 0.088577 191 170 134
0.978762 0.655084 0.079429 189 169 133
0.956412 0.646812 0.069768 188 169 133
0.934597 0.638092 0.059440 187 168 132
0.916944 0.624468 0.054865 185 167 131
0.891936 0.623409 0.034720 184 167 130
0.868257 0.603092 0.022236 182 166 129
0.851172 0.587378 0.004170 181 165 127
0.835712 0.569362 -0.005130 180 164 126
0.822147 0.558444 -0.027928 179 163 125
0.799018 0.536982 -0.044345 178 162 123
0.775783 0.523929 -0.066097 176 161 122
0.749519 0.510032 -0.086023 175 160 120
0.629653 0.035529 0.442168 167 129 163
-0.976213 -0.494506 0.612722 65 95 176
-1.163413 -0.793287 0.558823 53 76 172
-1.186969 -0.816215 0.546706 51 74 171
0.295773 0.145682 0.372884 146 137 157
-0.722566 0.343534 0.224930 81 149 145
-0.619133 0.353748 0.235081 88 150 146
0.065253 -0.492056 0.922632 131 95 202
-1.840090 -1.263063 0.015500 10 46 128
-0.592489 0.355110 0.236088 89 150 146
-0.290353 -0.466538 0.897400 108 97 200
-0.964091 -0.626828 0.670637 66 87 181
0.096638 0.232086 0.292923 133 142 151
-0.490661 0.213412 0.391728 96 141 159
-1.655383 -1.071148 -0.052377 21 58 123
0.338046 -1.711519 0.734876 149 17 186
-1.288766 -0.630598 0.471526 45 86 165
-1.688503 -1.073420 -0.047515 19 58 123
-1.716246 -1.073995 -0.047982 18 58 123
-0.338063 -0.313090 0.706747 105 107 184
0.194421 -0.398750 0.716938 139 101 185
0.180629 -0.518019 0.909218 139 94 200
0.148722 -0.512309 0.913589 136 94 201
0.118559 -0.505732 0.919755 135 95 201
-0.373106 0.378461 0.207686 103 152 144
-0.695320 0.369728 0.200498 83 151 143
-0.564776 0.380444 0.211773 91 152 144
0.376182 0.065446 0.435482 151 131 162
-0.604704 0.294978 0.317153 88 146 153
-0.679107 0.287648 0.318781 84 146 153
-1.004516 -0.467089 0.591200 63 97 175
-0.823335 0.342745 0.179256 75 149 141
0.266377 -0.363882 0.618273 144 104 177
0.241941 -0.339885 0.617656 142 105 177
0.206362 -0.337516 0.626832 140 105 178
0.182727 -0.329952 0.626923 139 106 178
0.158984 -0.335561 0.631431 137 106 178
0.082885 -0.258588 0.609373 132 110 176
0.130468 -0.331807 0.637143 135 106 178
0.101822 -0.326681 0.640430 133 106 179
-0.500432 0.517811 -0.040498 95 161 124
-0.530798 0.523087 -0.043709 93 161 123
-0.557551 0.519698 -0.048376 91 161 123
-0.586538 0.517307 -0.042985 90 161 123
0.071836 -0.324243 0.641577 132 106 179
0.037533 -0.317091 0.643014 129 107 179
0.004333 -0.315451 0.651023 127 107 180
-0.024847 -0.312458 0.654636 125 107 180
-0.054582 -0.309172 0.659024 124 107 180
-0.083040 -0.302278 0.664437 122 108 181
0.266561 0.120039 0.390038 144 135 158
-1.047056 -0.515410 0.590087 60 94 175
-0.065073 0.079892 0.452621 123 132 164
-0.525286 0.195021 0.413599 94 140 160
0.849149 0.254788 0.322874 181 144 153
-0.990558 0.231416 0.207021 64 142 144
-0.415479 -0.505040 0.879216 101 95 198
-0.722670 -0.468465 0.751677 81 97 188
-0.747708 -0.465482 0.737148 79 97 187
-0.014839 0.102436 0.441216 126 134 163
-0.111970 -0.296934 0.669099 120 108 181
0.488782 -1.928346 0.771669 158 3 189
-0.141085 -0.294512 0.672119 118 108 181
